# .PCD v0.7 - Point Cloud Data file format
VERSION 0.7
FIELDS x y z
SIZE 4 4 4
TYPE F F F
COUNT 1 1 1
WIDTH 1510
HEIGHT 1
VIEWPOINT 0 0 0 1 0 0 0
POINTS 1510
DATA ascii
-0.22534503 0.24094616 1.3031429
-0.21559431 0.2416143 1.3010001
-0.20507875 0.24254243 1.3015556
-0.19582078 0.24247944 1.3030001
-0.18585716 0.2416143 1.3010001
-0.1748362 0.24130249 1.3020002
-0.16640878 0.24130249 1.3020002
-0.15859811 0.2416143 1.3010001
-0.62190485 0.25995621 1.3060001
-0.61444193 0.25995621 1.3060001
-0.60324764 0.25995621 1.3060001
-0.58272481 0.2593343 1.3060001
-0.50374287 0.25995621 1.3060001
-0.48218355 0.25912702 1.3060001
-0.47460222 0.25889009 1.3060001
-0.46477017 0.2582978 1.3060001
-0.4558562 0.25840145 1.3060001
-0.4458169 0.25889009 1.3060001
-0.43477783 0.25838065 1.3043336
-0.42478466 0.2581872 1.3054445
-0.41490215 0.25693277 1.3052309
-0.40528908 0.25610036 1.3053751
-0.39496481 0.25585276 1.3041251
-0.38455912 0.25388667 1.3031429
-0.37546691 0.25346258 1.3038126
-0.36532086 0.25242549 1.3036925
-0.35482165 0.25184569 1.302667
-0.34445527 0.25152668 1.3010001
-0.33703813 0.25101972 1.3026668
-0.32618263 0.25114647 1.3022501
-0.29861051 0.25152668 1.3010001
-0.73384762 0.26990667 1.3060001
-0.72315091 0.26940915 1.3060001
-0.71337306 0.26586622 1.3045
-0.70439148 0.26614264 1.3033532
-0.69410443 0.26751262 1.3037779
-0.68385786 0.26733294 1.3038572
-0.67373079 0.26667103 1.3023639
-0.6645028 0.26491925 1.3037274
-0.65432888 0.26587573 1.3040771
-0.64479542 0.26750326 1.304
-0.63419354 0.26825008 1.3031431
-0.6242398 0.26588073 1.3045714
-0.61328036 0.26405811 1.3028183
-0.60531276 0.2651976 1.305091
-0.59400791 0.2656422 1.3060001
-0.5846917 0.26491866 1.3039169
-0.57477903 0.26411217 1.3035002
-0.56431854 0.26501942 1.3040001
-0.55520719 0.26478529 1.3041821
-0.54391176 0.2666125 1.3045
-0.53515345 0.264882 1.3047501
-0.52545685 0.2643148 1.3043333
-0.51478219 0.26478532 1.3041821
-0.50516832 0.26459017 1.3043336
-0.49619633 0.26459017 1.3043336
-0.48562896 0.26330724 1.3041251
-0.47548208 0.26401764 1.3015001
-0.4665446 0.26387456 1.3019093
-0.45543855 0.26250109 1.301
-0.44515619 0.26164001 1.3020002
-0.43639261 0.26243028 1.3010001
-0.4256129 0.26329762 1.3010001
-0.41301593 0.26226509 1.3010001
-0.40446058 0.26250109 1.301
-0.39649528 0.26143906 1.3010001
-0.73376405 0.27333394 1.3010001
-0.72567201 0.27349833 1.3021541
-0.7165826 0.27341655 1.3010001
-0.706505 0.27184707 1.3010001
-0.69634479 0.27135146 1.3010001
-0.64058769 0.27135146 1.3010001
-0.63315338 0.27135146 1.3010001
-0.62571907 0.27135146 1.3010001
-0.54146385 0.27135146 1.3010001
0.49757338 0.20805335 1.3160001
0.50384003 0.20805335 1.3160001
0.53416806 0.2081188 1.3152858
0.54144001 0.20930669 1.3160001
0.58656001 0.20930669 1.3160001
0.63594139 0.20830402 1.3160001
0.6404534 0.20930669 1.3160001
0.6579991 0.20820606 1.3143334
0.66425604 0.20698325 1.314
0.67386717 0.2079208 1.3151667
0.68181336 0.20930669 1.3160001
-0.1128 0.21933335 1.3160001
-0.10508001 0.21891668 1.3135
-0.097760007 0.21933335 1.3160001
-0.086480014 0.21933335 1.3160001
-0.075199999 0.21933335 1.3160001
-0.051386669 0.21933335 1.3160001
-0.045120001 0.21933335 1.3160001
-0.035511117 0.21933335 1.3160001
-0.025066668 0.21933335 1.3160001
-0.015040001 0.21933335 1.3160001
-0.0050026197 0.21870835 1.3122501
0.0050121434 0.21912502 1.3147501
0.015022145 0.21912502 1.3147502
0.025838731 0.21794224 1.3126668
0.034793146 0.21849868 1.3140001
0.045120001 0.2184978 1.3160001
0.055591978 0.21790192 1.3138572
0.064223245 0.21816535 1.312
0.075132146 0.21912502 1.3147501
0.085144535 0.21912502 1.3147502
0.095253341 0.21933335 1.3160001
0.10517644 0.21912502 1.3147501
0.11486857 0.21850002 1.3110001
0.12533334 0.21933335 1.3160001
0.13590249 0.21849868 1.314
0.14511049 0.21578692 1.3135
0.15461822 0.2169123 1.3135
0.16512571 0.21766335 1.3135
0.17469867 0.21699469 1.314
0.18514097 0.21766335 1.3135
0.1957242 0.21699469 1.314
0.20508993 0.21634294 1.3130833
0.21502732 0.21627431 1.3126667
0.22524406 0.21648026 1.3139167
0.23550126 0.21605791 1.3136923
0.24519832 0.21612127 1.3140769
0.25521281 0.21675153 1.3141818
0.2651166 0.21634294 1.3130833
0.27491665 0.21667662 1.3137273
0.28420064 0.21794224 1.3126668
0.29522479 0.21766335 1.3135
0.30568653 0.21778287 1.3131429
0.31524003 0.21766335 1.3135
0.3257342 0.21729188 1.3137778
0.33577111 0.21675153 1.3141818
0.34539431 0.21699467 1.314
0.35632825 0.21571654 1.3143334
0.36527812 0.21516144 1.3135
0.37573275 0.21592301 1.3143333
0.38509062 0.21543701 1.3136667
0.39517438 0.21634294 1.3130833
0.40556574 0.21654892 1.3143333
0.41544676 0.2164803 1.3139167
0.42518854 0.21634294 1.3130833
0.43482322 0.21608838 1.3132223
0.44533905 0.21578689 1.3135
0.4553467 0.21516146 1.3135
0.46451953 0.21599542 1.3135
0.47410861 0.21547477 1.3135
0.48411623 0.21578692 1.3135
0.49482 0.21445562 1.3133076
0.5038898 0.2149985 1.3120002
0.51387191 0.2154168 1.3133076
0.52464563 0.21378992 1.3138572
0.53404814 0.21373273 1.311
0.54423362 0.21377397 1.3126667
0.55438101 0.21374078 1.314
0.56359541 0.21568394 1.312875
0.57423753 0.21544193 1.3126668
0.5843696 0.2141801 1.3123636
0.59409875 0.21387239 1.3132727
0.60383832 0.21424831 1.3141818
0.61405933 0.21450731 1.3127859
0.62397832 0.21574324 1.3117692
0.6337055 0.21415123 1.3127857
0.64479536 0.21386833 1.3146363
0.65367949 0.21327116 1.3123636
0.66370493 0.21207879 1.311
0.674658 0.21239127 1.3118334
0.68411326 0.21321906 1.3126667
0.69324696 0.21364537 1.3132727
-0.25192001 0.22936001 1.3160001
-0.24553069 0.2285101 1.3140001
-0.23604445 0.22936003 1.3160001
-0.22309335 0.22936001 1.3160001
-0.21557334 0.22936001 1.3160001
-0.20525204 0.22777991 1.3141251
-0.1953343 0.22788882 1.3147501
-0.18522966 0.22777988 1.3141251
-0.17529881 0.22788884 1.3147501
-0.16544001 0.22810666 1.3160001
-0.15519251 0.22777988 1.3141251
-0.14479336 0.22668599 1.3137273
-0.13514453 0.22649103 1.3139167
-0.1248392 0.22588821 1.3145715
-0.11541126 0.22365212 1.3132727
-0.1052962 0.22099715 1.3110001
-0.093998633 0.22312668 1.3121111
-0.085118741 0.22405936 1.3143333
-0.075106159 0.22349715 1.3123636
-0.065451957 0.22303653 1.3132223
-0.055616196 0.22276859 1.31225
-0.044948574 0.22099715 1.3110001
-0.035237335 0.22166514 1.312
-0.024971429 0.22099715 1.3110001
-0.014233716 0.22149658 1.3110001
-0.0074914293 0.22099715 1.3110001
0.0062428578 0.22349429 1.311
0.014844128 0.2226619 1.311
0.028717145 0.22224572 1.3110001
0.035459433 0.22299485 1.311
0.044637486 0.22342052 1.3119091
0.05306429 0.22162144 1.3110001
0.066174291 0.22349429 1.311
0.07449811 0.22370242 1.311
0.084070481 0.22182953 1.311
0.094891436 0.22099715 1.3110001
0.10488001 0.22099715 1.3110001
0.11570095 0.22182953 1.311
0.12489802 0.22356452 1.3114166
0.13359715 0.22224574 1.311
0.15523906 0.22099715 1.3110001
0.16106573 0.22099715 1.3110001
0.18496695 0.22206736 1.311
0.19477715 0.22224572 1.311
0.2040166 0.22149658 1.3110001
0.21475431 0.22099715 1.3110001
0.22527798 0.22206736 1.311
0.23473145 0.22099715 1.3110001
0.24472001 0.22099715 1.3110001
0.25470859 0.22099715 1.3110001
0.26469716 0.22099715 1.3110001
0.27718288 0.22099715 1.3110001
0.28467429 0.22224572 1.311
0.29216573 0.22224572 1.3110001
0.30090573 0.22099715 1.3110001
0.42326576 0.22099715 1.3110001
0.61804289 0.22099715 1.3110001
0.62428576 0.22099715 1.3110001
-0.33213335 0.23938668 1.3160001
-0.32482716 0.23839955 1.3151668
-0.31521821 0.23729041 1.3155
-0.30560997 0.23685984 1.3146363
-0.29564798 0.23801966 1.3153751
-0.28468373 0.23685785 1.3145001
-0.27580139 0.23629938 1.3143334
-0.26568139 0.23632227 1.3141818
-0.25511298 0.23385073 1.3130833
-0.24409573 0.23254645 1.311
-0.23547845 0.23365714 1.3132727
-0.2257506 0.23349746 1.3125
-0.21433811 0.23098572 1.3110001
-0.20476574 0.23098573 1.3110001
-0.19477716 0.23098573 1.3110001
-0.1850383 0.23148516 1.3110001
-0.17438382 0.23181809 1.311
-0.1649662 0.23245454 1.31225
-0.15565525 0.23181812 1.311
-0.14858001 0.23098573 1.3110001
-0.42362669 0.24941336 1.3160001
-0.41448307 0.24810399 1.3135
-0.40530863 0.24768621 1.3135
-0.3958635 0.24804156 1.3153751
-0.3854785 0.24780467 1.3141251
-0.37551743 0.24730681 1.3124286
-0.36533204 0.24646802 1.3110001
-0.35543776 0.24467489 1.3141251
-0.3460803 0.24306042 1.3145715
-0.33560055 0.24304751 1.3132223
-0.3249405 0.24245262 1.31225
-0.31547239 0.24180667 1.311
-0.30423525 0.24097431 1.3110001
-0.29591146 0.24159859 1.3110001
-0.28842002 0.24097431 1.3110001
-0.72192001 0.25944 1.3160001
-0.71440005 0.25944 1.3160001
-0.70688009 0.25944 1.3160001
-0.67339092 0.25822493 1.3152858
-0.66331816 0.25675619 1.3135
-0.65549266 0.2582548 1.3147501
-0.64296007 0.25944 1.3160001
-0.63171405 0.25660637 1.3143334
-0.62432063 0.25634792 1.3141818
-0.61444676 0.25779337 1.314
-0.60321838 0.25700027 1.3147501
-0.59353548 0.2556335 1.3133076
-0.58398193 0.25665176 1.3135
-0.57420576 0.25836572 1.3160001
-0.56441784 0.25860444 1.3160001
-0.55355555 0.25860444 1.3160001
-0.54391277 0.25652626 1.315091
-0.53426254 0.25773889 1.3150001
-0.52264005 0.25693333 1.3160001
-0.5139845 0.25511071 1.3149287
-0.50461704 0.25627181 1.3143333
-0.4938134 0.25756001 1.3160001
-0.48394033 0.25649631 1.3137778
-0.47392854 0.25409353 1.313
-0.46519724 0.25350267 1.3126667
-0.4556427 0.25443614 1.3140769
-0.44568595 0.25543725 1.3141818
-0.43523452 0.25443614 1.3140769
-0.4255901 0.25340265 1.312
-0.4153581 0.25179526 1.311
-0.40453714 0.25096288 1.3110001
-0.39454859 0.25096288 1.3110001
-0.38830575 0.25096288 1.3110001
-0.74165928 0.26625392 1.3150001
-0.73468858 0.2668156 1.3141818
-0.72392547 0.26557383 1.31225
-0.71393317 0.26145092 1.3110001
-0.70365727 0.26269883 1.3135
-0.69446462 0.26473621 1.3138572
-0.68468565 0.2647818 1.3135
-0.67425019 0.26211557 1.3126668
-0.66448975 0.26195031 1.3110001
-0.6536231 0.2621367 1.31225
-0.64375007 0.26406473 1.3140769
-0.63466501 0.26405886 1.3126667
-0.62803149 0.26095146 1.3110001
-0.61055148 0.26095146 1.3110001
-0.60336047 0.26337758 1.3124286
-0.59515244 0.26178384 1.311
-0.58058578 0.26095146 1.3110001
-0.57443231 0.262306 1.3124286
-0.56510341 0.26145089 1.3110001
-0.55301672 0.26244885 1.31225
-0.54555637 0.2627821 1.3118334
-0.5343886 0.26095146 1.3110001
-0.52498144 0.26228145 1.3135
-0.51441145 0.26095146 1.3110001
-0.50400668 0.26095146 1.3110001
-0.49468404 0.26145092 1.3110001
-0.48819146 0.26095146 1.3110001
0.67057717 0.19826858 1.3260001
-0.021468572 0.20837145 1.3260001
-0.015154286 0.20837145 1.3260001
-0.0075771431 0.20837145 1.3260001
0.077034295 0.20774002 1.3260001
0.083348572 0.20837145 1.3260001
0.12628572 0.20837145 1.3260001
0.15406859 0.20837145 1.3260001
0.16290858 0.20837145 1.3260001
0.19826858 0.20837145 1.3260001
0.20458287 0.20837145 1.3260001
0.21216002 0.20837145 1.3260001
0.22478858 0.20837145 1.3260001
0.23489144 0.20837145 1.3260001
0.24541526 0.20837145 1.3260001
0.25383428 0.20837145 1.3260001
0.26545256 0.20786631 1.3260001
0.27488193 0.20752953 1.3260001
0.32771143 0.20774002 1.3260001
0.33629709 0.20627229 1.3255001
0.3463673 0.20607534 1.3260001
0.35542414 0.206407 1.3260001
0.36496571 0.20710857 1.3260001
0.37434697 0.20692816 1.3260001
0.38390857 0.20635088 1.3260001
0.39401147 0.20710859 1.3260001
0.40411431 0.20710859 1.3260001
0.41387275 0.20607534 1.3260001
0.42446035 0.20668763 1.3260001
0.43496412 0.207289 1.3260001
0.44427314 0.20635088 1.3260001
0.45445761 0.20627229 1.3255001
0.46473151 0.20710857 1.3260001
0.47483432 0.20837145 1.3260001
0.48577905 0.20752953 1.3260001
0.49539107 0.2060201 1.324182
0.50544858 0.20419478 1.3235
0.51523691 0.20501405 1.3250911
0.52537465 0.20585869 1.3248463
0.53368479 0.20515089 1.3238572
0.54578382 0.20671572 1.3235
0.55559838 0.20670368 1.3245716
0.56557965 0.20728898 1.3260001
0.57662058 0.20786631 1.3260001
0.58555043 0.20527656 1.3248463
0.59532183 0.20558463 1.3243335
0.60631174 0.20668763 1.3260001
0.61465067 0.20656736 1.3260001
0.62132573 0.20837145 1.3260001
0.63460082 0.20669465 1.3253751
0.64366698 0.20432258 1.3243334
0.65388393 0.20579825 1.3244617
0.66414994 0.20311004 1.3246366
0.67446971 0.20296808 1.3237275
0.68394548 0.20510486 1.3245002
0.69536448 0.20646314 1.3255455
0.70157117 0.20381853 1.3245716
-0.17048572 0.2184743 1.3260001
-0.16290858 0.21847431 1.3260001
-0.15331087 0.21796915 1.3260001
-0.14472345 0.21796915 1.3260001
-0.13411543 0.21796915 1.3260001
-0.12459606 0.21655253 1.3252859
-0.11713001 0.21689571 1.3260001
-0.10608001 0.2184743 1.3260001
-0.095476836 0.21660741 1.3248889
-0.08541213 0.21587862 1.324182
-0.075676195 0.21567398 1.3243334
-0.06562572 0.2158113 1.3251668
-0.055450916 0.21617818 1.3260001
-0.045103297 0.2161033 1.3255455
-0.035038903 0.21536992 1.3248463
-0.025222622 0.21437797 1.3241252
-0.015115894 0.21412532 1.3225625
-0.0050383331 0.21417563 1.3228751
0.0034263949 0.21607539 1.3245715
0.016400477 0.21637407 1.3247501
0.024713907 0.21511582 1.3240001
0.034879789 0.21586415 1.3237779
0.045713771 0.21458425 1.3232728
0.055179052 0.21343562 1.3236924
0.065804638 0.21405128 1.3236668
0.075683035 0.21442889 1.3244376
0.085733518 0.2143271 1.3238126
0.095934734 0.21524389 1.324077
0.10594667 0.215674 1.3243335
0.11623876 0.21511863 1.3233079
0.12515613 0.21453579 1.3233078
0.13427019 0.21416982 1.3238126
0.14430468 0.2124228 1.3245002
0.15528351 0.2124124 1.3232224
0.16464786 0.21295024 1.3230835
0.17467958 0.21278246 1.3237779
0.18528764 0.21427859 1.3235002
0.19457293 0.21278244 1.3237779
0.20409894 0.21165824 1.3228751
0.21428098 0.21175766 1.3235002
0.22436477 0.21175763 1.3235002
0.23444858 0.21175766 1.3235002
0.24479938 0.21120574 1.3226668
0.25487578 0.21204448 1.3226668
0.26470003 0.21175765 1.3235002
0.27478382 0.21175763 1.3235
0.28468826 0.21351306 1.3226668
0.29447019 0.21465322 1.3232223
0.30507758 0.21404435 1.324182
0.31562582 0.21335636 1.324182
0.32499573 0.21288399 1.3226668
0.33451355 0.21177939 1.3210001
0.34457833 0.21177939 1.3210001
0.35456225 0.21246167 1.3214546
0.36519286 0.21155885 1.3222501
0.37407365 0.21136002 1.3210001
0.3835386 0.21065383 1.3218335
0.39522827 0.21145943 1.3216251
0.40549001 0.21155882 1.3222501
0.41517147 0.21136002 1.3210001
0.42523623 0.21136002 1.3210001
0.43530095 0.21136002 1.3210001
0.44519776 0.21227393 1.3220001
0.45543051 0.21136004 1.3210001
0.46549526 0.21198906 1.3210001
0.47481811 0.21213283 1.3232224
0.48541707 0.21185021 1.3225001
0.4938024 0.21073097 1.3210001
0.51581907 0.21094064 1.3210001
0.52588385 0.21010192 1.3210001
0.54852957 0.21010192 1.3210001
0.55607814 0.21010192 1.3210001
0.56694472 0.21228728 1.3228751
0.57628739 0.21251345 1.3235002
0.58344042 0.21126744 1.3220001
0.59507912 0.21010192 1.3210001
0.60388577 0.21010192 1.3210001
0.61319566 0.21060514 1.3210001
0.62489253 0.21129391 1.3217144
0.63156384 0.21010192 1.3210001
0.64666104 0.21010192 1.3210001
0.65420955 0.21010192 1.3210001
0.68817812 0.21010192 1.3210001
0.69446862 0.21010192 1.3210001
0.70075911 0.21010192 1.3210001
-0.34476003 0.22857715 1.3260001
-0.33592001 0.22857715 1.3260001
-0.3258172 0.22731429 1.3260001
-0.3157143 0.22857715 1.3260001
-0.30687431 0.22857715 1.3260001
-0.29496738 0.2274947 1.3260001
-0.28506133 0.22628106 1.3260001
-0.27530286 0.22605145 1.3260001
-0.2651808 0.22596763 1.3241819
-0.2546162 0.22688335 1.3235002
-0.24425612 0.22460388 1.3249286
-0.23461555 0.22451982 1.3244374
-0.22394343 0.22484003 1.323143
-0.21485899 0.22474998 1.324077
-0.20402172 0.22368994 1.3240001
-0.19479486 0.22276458 1.3230002
-0.18520631 0.22300412 1.3229232
-0.17517525 0.22306252 1.3232728
-0.16583975 0.22306313 1.3219092
-0.15600383 0.22268288 1.3210001
-0.14635842 0.22184414 1.3210001
-0.1358743 0.22142479 1.3210001
-0.12664826 0.2210054 1.3210001
-0.11826096 0.22016668 1.3210001
-0.093099058 0.22016668 1.3210001
-0.081776194 0.22016668 1.3210001
-0.065420955 0.22016668 1.3210001
-0.056614291 0.22016668 1.3210001
-0.033968575 0.22016668 1.3210001
-0.40158862 0.23868002 1.3260001
-0.39426404 0.23817487 1.3260001
-0.38336736 0.23759757 1.3260001
-0.37443718 0.23710145 1.3260001
-0.36395544 0.23716459 1.3260001
-0.35599285 0.23656943 1.3255001
-0.34558451 0.23478593 1.3240001
-0.33528668 0.23444381 1.3235002
-0.32525915 0.23340362 1.3225385
-0.31547228 0.23229623 1.3232224
-0.3046684 0.23259297 1.3230001
-0.29436076 0.23333584 1.3221539
-0.28432953 0.23148954 1.3210001
-0.27480108 0.23200576 1.3215556
-0.26473922 0.2313098 1.3210001
-0.25665146 0.23023145 1.3210001
-0.23274764 0.23023145 1.3210001
-0.22771525 0.23023145 1.3210001
-0.70720005 0.24878287 1.3260001
-0.6604743 0.24878287 1.3260001
-0.65416008 0.24878287 1.3260001
-0.64405715 0.24878287 1.3260001
-0.63395435 0.24878287 1.3260001
-0.62348354 0.24847019 1.3243335
-0.61627436 0.24878287 1.3260001
-0.60617143 0.24878287 1.3260001
-0.59606862 0.24878287 1.3260001
-0.58596575 0.24878287 1.3260001
-0.56449723 0.24878287 1.3260001
-0.55481523 0.24794097 1.3260001
-0.54479659 0.24827774 1.3260001
-0.53620923 0.24827774 1.3260001
-0.52485454 0.24854836 1.3247501
-0.5152458 0.24878287 1.3260001
-0.50514293 0.24878287 1.3260001
-0.4952926 0.24827774 1.3260001
-0.48493719 0.24878287 1.3260001
-0.47371945 0.24809012 1.3250002
-0.46498609 0.24762827 1.3243335
-0.45429835 0.24643357 1.3254446
-0.44438571 0.24493478 1.3243334
-0.43479025 0.24557993 1.3244617
-0.4245384 0.24614564 1.3241819
-0.4142203 0.24444024 1.3237779
-0.40412822 0.24364002 1.3244616
-0.39408576 0.24333301 1.325091
-0.38480419 0.2434288 1.3230002
-0.37491238 0.24281238 1.3210001
-0.36531675 0.24266633 1.3214546
-0.35562161 0.24113494 1.3210001
-0.34446651 0.24079943 1.3210001
-0.33716953 0.2402962 1.3210001
-0.74719048 0.25804386 1.3260001
-0.73456192 0.25888574 1.3260001
-0.72497314 0.25614309 1.3248891
-0.71413368 0.25544408 1.323143
-0.7045337 0.25496051 1.3240001
-0.69504821 0.25589636 1.3256155
-0.68444461 0.25622308 1.3240001
-0.67393297 0.25424659 1.3237779
-0.66384989 0.25273916 1.3232224
-0.65418702 0.25423709 1.3231876
-0.64435649 0.25466326 1.3233335
-0.63503277 0.25308773 1.3221112
-0.62372905 0.2523118 1.3220001
-0.61423987 0.25336429 1.3223637
-0.60487062 0.2527203 1.3215001
-0.59382099 0.25119969 1.3210001
-0.5846597 0.25205204 1.3216251
-0.57603556 0.25371248 1.3235
-0.56559163 0.25407192 1.3235
-0.55585188 0.25394297 1.3225385
-0.54552609 0.2519744 1.3228751
-0.53546864 0.25290683 1.3223637
-0.52686238 0.25315675 1.3210001
-0.51581907 0.25036097 1.3210001
-0.50457972 0.2519744 1.3228751
-0.49545714 0.25282073 1.3219092
-0.48562479 0.25224811 1.3210001
-0.47581163 0.25086421 1.3210001
-0.46549526 0.25036097 1.3210001
-0.45543051 0.25036097 1.3210001
-0.44554546 0.25179878 1.3210001
-0.43530095 0.25036097 1.3210001
-0.42901051 0.25036097 1.3210001
-0.74447083 0.26201239 1.3226668
-0.73505723 0.26273438 1.3225001
-0.72843719 0.26168382 1.3210001
-0.70264626 0.26105478 1.3210001
-0.69446862 0.26168382 1.3210001
-0.68608135 0.26210317 1.3210001
-0.65043527 0.26042572 1.3210001
-0.64372545 0.26042572 1.3210001
0.075070478 0.19976382 1.3360001
0.083722673 0.19925487 1.3360001
0.090339057 0.19976382 1.3360001
0.12723811 0.19976382 1.3360001
0.15565462 0.19976382 1.3360001
0.16286477 0.19976382 1.3360001
0.2150324 0.19976382 1.3360001
0.2213943 0.19976382 1.3360001
0.23030096 0.19976382 1.3360001
0.26338288 0.19976382 1.3360001
0.27228954 0.19976382 1.3360001
0.30537146 0.19976382 1.3360001
0.33845335 0.19976382 1.3360001
0.3469359 0.19891556 1.3360001
0.3549943 0.19976382 1.3360001
0.36347684 0.19976382 1.3360001
0.37408003 0.19976382 1.3360001
0.38407731 0.1986732 1.3360002
0.3946926 0.19925487 1.3360001
0.40461716 0.19976382 1.3360001
0.4147962 0.19976382 1.3360001
0.42497528 0.19976382 1.3360001
0.43609625 0.1996143 1.335
0.44493428 0.1990162 1.3310001
0.45508358 0.19824599 1.333143
0.46440127 0.1983528 1.3338573
0.47502229 0.19891556 1.3360001
0.48659486 0.1986732 1.3360002
0.49444729 0.19874592 1.3360001
0.50475341 0.1996143 1.335
0.51561767 0.19854176 1.3335003
0.52450764 0.19811761 1.3335001
0.53374654 0.19859639 1.335
0.55603051 0.19976382 1.3360001
0.56541133 0.19852917 1.3341253
0.57557613 0.19821107 1.3341252
0.58566439 0.19785377 1.3326669
0.59606135 0.19784084 1.3316252
0.60620588 0.19784084 1.3316251
0.61585093 0.19803511 1.3317144
0.62389088 0.19806731 1.3360001
0.63452053 0.19836684 1.3351668
0.64450395 0.19853036 1.3341252
0.65459925 0.19824599 1.333143
0.6642077 0.19811761 1.3335003
0.67479157 0.19728933 1.3326669
0.68409318 0.19740699 1.3315557
0.69458228 0.19637042 1.3329233
0.70400184 0.19578731 1.3335003
-0.12214858 0.20994288 1.3360001
-0.09361089 0.20885225 1.3360002
-0.083914295 0.20774992 1.3350003
-0.074978419 0.20840858 1.3343334
-0.065555818 0.20759276 1.3340002
-0.056384027 0.20815903 1.3354447
-0.045805719 0.20867047 1.3360002
-0.03513005 0.20781089 1.3332224
-0.025732731 0.20667022 1.3328184
-0.015095979 0.20527142 1.3332224
-0.0045710481 0.20642152 1.3330002
0.0038155559 0.20841019 1.3343334
0.015256668 0.20896365 1.3351668
0.025400002 0.20827761 1.3335001
0.035457782 0.20807175 1.3348891
0.046087798 0.20734459 1.334182
0.056084637 0.20581037 1.3323333
0.065978095 0.20554359 1.33225
0.075634606 0.20429794 1.3310002
0.085216865 0.20466943 1.3315003
0.093891911 0.20554361 1.3322502
0.10438146 0.20596367 1.3333336
0.1144803 0.20676485 1.3344617
0.12403014 0.20508213 1.3327858
0.13449381 0.20554359 1.33225
0.14467852 0.20559148 1.3325626
0.15479358 0.20427597 1.3322502
0.16494563 0.20491056 1.3322502
0.17457026 0.20673008 1.3330835
0.18588275 0.20789713 1.3337779
0.19557954 0.20700713 1.3335001
0.20605022 0.20466304 1.3332729
0.21555305 0.20539619 1.3326669
0.22475466 0.20443758 1.3333079
0.23529677 0.20440294 1.3330835
0.24476269 0.20540552 1.3330003
0.25537753 0.20494556 1.3340771
0.26406002 0.20388344 1.3330003
0.27386126 0.20380676 1.3325002
0.28432864 0.20562676 1.3327858
0.29450074 0.20563942 1.3328751
0.30444255 0.20549628 1.3319376
0.3145884 0.2059126 1.3330002
0.32512161 0.20573604 1.3335003
0.33428574 0.20274612 1.3317145
0.34453887 0.20205848 1.3310001
0.35620102 0.20281905 1.3310002
0.36524513 0.2029137 1.3316252
0.37479272 0.20352329 1.3310002
0.38535622 0.20239651 1.3310002
0.3954972 0.20281905 1.3310002
0.4056381 0.20281905 1.3310002
0.41653961 0.20205848 1.3310001
0.42573896 0.20263796 1.3310002
0.43563849 0.20324159 1.3310002
0.44493434 0.20218524 1.3310001
0.45296261 0.20239651 1.3310002
0.46394861 0.20281905 1.3310002
0.47459757 0.20392503 1.3314548
0.48388481 0.20385621 1.3310002
0.49382821 0.20263796 1.3310002
0.50451243 0.20155144 1.3310001
0.51507592 0.20155144 1.3310001
0.52479434 0.20155144 1.3310001
0.53493524 0.20218524 1.3310001
0.54460967 0.20343414 1.3338574
0.55543572 0.2030147 1.3332224
0.56578064 0.20324159 1.3310002
0.57584482 0.20385621 1.3310002
0.58373857 0.20218524 1.3310001
0.59578097 0.20155144 1.3310001
0.60592192 0.20239651 1.3310002
0.61624402 0.20263796 1.3310002
0.62566024 0.20474514 1.3320001
0.63321805 0.2041555 1.3314548
0.6414153 0.20155144 1.3310001
0.65409148 0.20155144 1.3310001
0.66169721 0.20155144 1.3310001
0.68578196 0.20155144 1.3310001
0.694112 0.20263796 1.3310002
0.70099336 0.20155144 1.3310001
-0.2434324 0.2173712 1.3347502
-0.23503621 0.2177566 1.3340003
-0.2232625 0.21664897 1.3350003
-0.21511291 0.21628229 1.3340771
-0.20547678 0.21680689 1.3336926
-0.1955276 0.21638207 1.333143
-0.18549004 0.21674426 1.3333079
-0.17525841 0.21653144 1.3335003
-0.16516189 0.2159781 1.3340002
-0.15550706 0.21470764 1.3340002
-0.1444083 0.21435951 1.3332729
-0.13452598 0.21443266 1.3337275
-0.12530747 0.2129351 1.3335
-0.11383392 0.21419963 1.3340003
-0.10402033 0.21495432 1.3337779
-0.094037294 0.21289255 1.3317145
-0.08493048 0.21169239 1.3310001
-0.076057151 0.21169239 1.3310001
-0.065916196 0.21169239 1.3310001
-0.056028765 0.21219945 1.3310001
-0.046394862 0.21219945 1.3310001
-0.036760956 0.21169239 1.3310001
0.006346033 0.21449274 1.3326669
0.013949169 0.21369325 1.3316252
0.025352383 0.21169239 1.3310001
0.036338415 0.21253748 1.3310002
0.044366669 0.21169239 1.3310001
0.093803816 0.21169239 1.3310001
0.10394476 0.21169239 1.3310001
0.11408572 0.21169239 1.3310001
0.1787343 0.21169239 1.3310001
0.18507239 0.21169239 1.3310001
0.19141048 0.21169239 1.3310001
0.29408765 0.21169239 1.3310001
0.30465114 0.21169239 1.3310001
0.31310192 0.21169239 1.3310001
-0.38807622 0.2277562 1.3360001
-0.37662479 0.2277562 1.3360001
-0.3528581 0.22831716 1.3343334
-0.34448576 0.22637452 1.3335001
-0.33545348 0.22444201 1.3328184
-0.32449061 0.22380236 1.3326669
-0.31442341 0.22549169 1.3339168
-0.30520257 0.22598602 1.3343335
-0.29450372 0.22341347 1.3328751
-0.2833966 0.22149105 1.3320001
-0.27432004 0.22097763 1.3335001
-0.26458177 0.22224842 1.3335
-0.25503835 0.22285758 1.3337779
-0.24891764 0.22097763 1.3335001
-0.23030096 0.22012192 1.3360001
-0.22803302 0.22126287 1.3326668
-0.21422763 0.22183335 1.3310001
-0.20662192 0.22183335 1.3310001
-0.45254505 0.23771025 1.3347501
-0.44577003 0.23833352 1.3335
-0.43621773 0.23851159 1.333143
-0.42421183 0.23742631 1.3360001
-0.41449007 0.23657572 1.3343335
-0.40510911 0.23537233 1.3340001
-0.39452979 0.23337497 1.3338573
-0.38486189 0.23283063 1.3336924
-0.37425414 0.23308155 1.3330003
-0.36511204 0.23333506 1.3330003
-0.35622287 0.23226161 1.3326668
-0.34606004 0.2319743 1.3310001
-0.73141623 0.24972098 1.3310001
-0.71620482 0.24972098 1.3310001
-0.70431179 0.24880287 1.3338573
-0.69533014 0.24839872 1.3341253
-0.68630779 0.24875696 1.334
-0.672589 0.24875696 1.334
-0.66547126 0.24875697 1.3340001
-0.65400386 0.2481143 1.3360001
-0.64354056 0.2459736 1.3347502
-0.63527483 0.2462917 1.3347502
-0.62356532 0.24891764 1.3335001
-0.61525506 0.24851596 1.3347501
-0.60522914 0.24641782 1.3360002
-0.5953669 0.24420051 1.3343335
-0.58641952 0.24701382 1.3335001
-0.57524383 0.24737746 1.3343335
-0.56518394 0.24439406 1.3330835
-0.55538261 0.24340846 1.333143
-0.54502076 0.243368 1.3325386
-0.53475684 0.24495368 1.332667
-0.52526778 0.24612507 1.3335001
-0.51404196 0.24726605 1.3360001
-0.50387311 0.24542455 1.3335003
-0.49561575 0.24542694 1.3335001
-0.4856652 0.24600512 1.3337779
-0.47514492 0.24357794 1.3336924
-0.46438739 0.24336804 1.3325386
-0.45539945 0.24181895 1.3328751
-0.43456313 0.24170645 1.3322501
-0.425641 0.24167019 1.3332224
-0.41704667 0.24211526 1.3310001
-0.75273246 0.2545813 1.3343334
-0.74548632 0.2570447 1.3335001
-0.73559546 0.25417861 1.3329233
-0.7257002 0.2519339 1.333143
-0.71747243 0.25225621 1.3310001
-0.70226097 0.25225621 1.3310001
-0.69339967 0.25244385 1.332
-0.68398046 0.25157171 1.333143
-0.6773321 0.25172383 1.3326668
0.44386861 0.18772477 1.3470001
0.45387489 0.18806687 1.3470001
0.49133432 0.18858001 1.3470001
0.59524572 0.18858001 1.3470001
0.6067915 0.18857999 1.3470001
0.61705434 0.18858001 1.3470001
0.62475145 0.18858001 1.3470001
0.63244861 0.18858001 1.3470001
0.65553999 0.18857999 1.3470001
0.66528976 0.18806687 1.3470001
0.67563814 0.18772478 1.3470001
0.68461818 0.18580049 1.3470001
0.69544357 0.18728414 1.345889
0.70554 0.18694717 1.3445001
0.71326864 0.18729715 1.3470001
-0.14496286 0.19884287 1.3470001
-0.13598287 0.19884287 1.3470001
-0.12572001 0.19884287 1.3470001
-0.11545715 0.19884287 1.3470001
-0.10519429 0.19884287 1.3470001
-0.09749715 0.19884287 1.3470001
-0.083385728 0.19884287 1.3470001
-0.074405715 0.19884287 1.3470001
-0.065425724 0.19884287 1.3470001
-0.053880006 0.19884287 1.3470001
-0.044258572 0.19820145 1.3470001
-0.035479158 0.19705039 1.3464446
-0.025620833 0.19728321 1.3451251
-0.016218573 0.19761859 1.3445001
-0.0051278574 0.19737548 1.3457501
0.0043607624 0.19818211 1.3460001
0.015394286 0.19884287 1.3470001
0.025657143 0.19884287 1.3470001
0.036469799 0.19774328 1.3470001
0.0449 0.19756001 1.3470001
0.05311029 0.19832972 1.3470001
0.064142868 0.19884287 1.3470001
0.075120479 0.19761856 1.3445001
0.084716462 0.19706042 1.3448572
0.093841277 0.19749556 1.3436667
0.10514608 0.19746774 1.3463751
0.11529822 0.19728322 1.3451251
0.12632687 0.19668329 1.345889
0.13573049 0.19719096 1.3445001
0.14538573 0.1973215 1.3441429
0.15524991 0.19649504 1.345
0.16434041 0.19612953 1.3460001
0.17432602 0.19713239 1.3470001
0.1838762 0.19798763 1.3470001
0.1949943 0.19884287 1.3470001
0.20571831 0.1980345 1.345
0.21512002 0.19719096 1.3445001
0.22475417 0.1973215 1.3441429
0.23618075 0.19688636 1.3453335
0.24453063 0.19690478 1.3462858
0.25400573 0.19756001 1.3470001
0.26409405 0.19751166 1.3445001
0.27402192 0.19783241 1.3445001
0.2847943 0.19884287 1.3470001
0.29572749 0.19786461 1.3461667
0.30475336 0.19719096 1.3445001
0.31434032 0.19774158 1.3453335
0.32584575 0.19884287 1.3470001
0.33703226 0.19716585 1.3455715
0.34466159 0.19603111 1.3453335
0.35475585 0.19584259 1.3456365
0.36441898 0.1958788 1.3457502
0.37517717 0.19719096 1.3445001
0.38533831 0.19664268 1.3460001
0.39415118 0.1964328 1.3455715
0.40463051 0.19719096 1.3445001
0.41586179 0.19545795 1.3454616
0.42571819 0.19565533 1.3454616
0.43478519 0.19506326 1.3454616
0.44409573 0.19480979 1.3457501
0.45389065 0.19433908 1.3462858
0.46362463 0.19576401 1.3470001
0.47515142 0.19520997 1.346091
0.48462513 0.19427399 1.345
0.49573025 0.19380301 1.3461667
0.50535893 0.19565533 1.3454616
0.51571077 0.19582804 1.345889
0.52596629 0.19381222 1.346091
0.5350216 0.19490203 1.3463751
0.54274052 0.19700938 1.3461667
0.55495596 0.19779347 1.3448572
0.56375879 0.19688636 1.3453335
0.57544905 0.19523184 1.3448572
0.5858233 0.19432381 1.3453335
0.59519392 0.19334573 1.346091
0.6051324 0.19359003 1.3461667
0.61555862 0.19368464 1.3454616
0.62511402 0.19308339 1.3442727
0.63404876 0.19441462 1.3445001
0.64434212 0.19407861 1.3454616
0.65306377 0.1932129 1.3435384
0.66393131 0.19350421 1.3440834
0.67479998 0.19346859 1.3453335
0.68516791 0.19285101 1.3442727
0.69457722 0.19201398 1.3431112
0.7050826 0.19128825 1.342
0.7118991 0.19171429 1.342
-0.27324858 0.20910573 1.3470001
-0.26298574 0.20910573 1.3470001
-0.25400573 0.20910573 1.3470001
-0.2443843 0.20846429 1.3470001
-0.23549594 0.20800614 1.3470001
-0.22510211 0.2068979 1.3460001
-0.21509942 0.20602587 1.3462309
-0.20536231 0.20535849 1.3460002
-0.19447555 0.20590645 1.3454616
-0.18495664 0.2063989 1.346091
-0.17446858 0.20654 1.3470001
-0.16411865 0.20514627 1.3462857
-0.15465188 0.2048624 1.3449999
-0.14530954 0.20507471 1.3434285
-0.13566619 0.20477679 1.3438749
-0.12548667 0.20487145 1.3444998
-0.11521696 0.20482412 1.3441875
-0.10497376 0.20482409 1.3441873
-0.095090851 0.20407343 1.3450769
-0.084480003 0.20300496 1.3440001
-0.074197382 0.20340405 1.3432499
-0.064436615 0.20269735 1.3442223
-0.054526858 0.20326057 1.3440001
-0.045708314 0.20365342 1.3433636
-0.036172904 0.20318867 1.3433636
-0.025561906 0.20193905 1.342
-0.01551973 0.20175646 1.342
-0.0051123812 0.20193905 1.342
0.0056703412 0.20445253 1.3441429
0.015369797 0.20437741 1.3448572
0.025607938 0.20359255 1.3445001
0.035951346 0.20325662 1.3438182
0.04562138 0.20253123 1.3431112
0.054319046 0.2013 1.342
0.06390477 0.20066096 1.342
0.070295244 0.20066096 1.342
0.095857151 0.20066096 1.342
0.10403695 0.20117219 1.342
0.11484599 0.20175648 1.342
0.12269715 0.20066096 1.342
0.13547809 0.20066096 1.342
0.14570285 0.20066096 1.342
0.15464954 0.20066096 1.342
0.16913462 0.20151301 1.342
0.1756103 0.20168343 1.342
0.18421914 0.20340484 1.3432499
0.19436815 0.20261429 1.3436667
0.20376937 0.20163763 1.3428334
0.214294 0.20066096 1.342
0.22750098 0.20066096 1.342
0.23644763 0.20066096 1.342
0.24583372 0.20183297 1.3430001
0.25452667 0.20081048 1.3430001
0.26626983 0.20066096 1.342
0.27862477 0.20066096 1.342
0.28501526 0.20066096 1.342
0.29341128 0.20132172 1.3430001
0.30035239 0.20066096 1.342
0.31568956 0.20066096 1.342
0.32408842 0.20175648 1.342
0.33358288 0.20066096 1.342
0.36681336 0.20066096 1.342
0.54574668 0.20066096 1.342
0.55171114 0.20151301 1.342
0.63137907 0.20066096 1.342
-0.39127144 0.21936859 1.3470001
-0.38485718 0.21936859 1.3470001
-0.34380573 0.21936859 1.3470001
-0.33592531 0.21826899 1.3470001
-0.32554215 0.21659929 1.3457502
-0.31509519 0.21646439 1.3449167
-0.30494222 0.21653144 1.3453335
-0.29437765 0.21583714 1.3455715
-0.28483853 0.21510056 1.346
-0.27519792 0.21521734 1.3456668
-0.26517883 0.21521583 1.3451251
-0.25534272 0.21531035 1.3434285
-0.24590552 0.21293071 1.342
-0.23491392 0.21293071 1.342
-0.22558382 0.21248336 1.342
-0.21395317 0.21139698 1.342
-0.20534731 0.21173781 1.342
-0.19445309 0.21198125 1.342
-0.18349798 0.21198127 1.342
-0.1756103 0.21190822 1.342
-0.16670015 0.21198127 1.342
-0.15567201 0.21139698 1.342
-0.14570285 0.21088573 1.342
-0.13547809 0.21088573 1.342
-0.12780952 0.21088573 1.342
-0.11502858 0.21088573 1.342
-0.10565588 0.21173781 1.342
-0.47465718 0.22963144 1.3470001
-0.46054575 0.22963144 1.3470001
-0.45413148 0.22899002 1.3470001
-0.44357973 0.22755525 1.3455715
-0.43507606 0.22715183 1.3460001
-0.42687076 0.22802787 1.3470001
-0.41465786 0.22828831 1.3455715
-0.40439379 0.22627904 1.3446923
-0.39504826 0.22535783 1.3450769
-0.38511485 0.22499757 1.3434286
-0.37541038 0.2251655 1.3439231
-0.36498424 0.22667381 1.3446923
-0.35433251 0.224887 1.3442223
-0.34657827 0.22322653 1.3445001
-0.33517408 0.22131646 1.34325
-0.32386932 0.22162172 1.342
-0.31441146 0.22111049 1.342
-0.30461273 0.22238858 1.342
-0.29396194 0.22111049 1.342
-0.28629336 0.22111049 1.342
-0.26456571 0.22111051 1.342
-0.25817525 0.22111049 1.342
-0.74020863 0.2398943 1.3470001
-0.73507714 0.23989432 1.3470001
-0.72609723 0.2398943 1.3470001
-0.71506464 0.23938115 1.3470001
-0.70537168 0.23817375 1.3455715
-0.69561827 0.23859823 1.3451251
-0.68504572 0.23861143 1.3470001
-0.67478293 0.23903906 1.3470001
-0.66067147 0.2398943 1.3470001
-0.65425718 0.2398943 1.3470001
-0.6427626 0.23680487 1.3455001
-0.6346373 0.23646455 1.3457502
-0.62613302 0.23693386 1.3470001
-0.61577141 0.23861146 1.3470001
-0.60604227 0.23831463 1.3453335
-0.59661168 0.23967169 1.3457501
-0.58443314 0.2387947 1.3470001
-0.57418668 0.23838881 1.3457501
-0.56382716 0.23706143 1.3455001
-0.55389506 0.23615232 1.3445002
-0.54383558 0.23757458 1.3455001
-0.53539819 0.23866747 1.3462858
-0.52597141 0.23861143 1.3470001
-0.51570868 0.23693343 1.346091
-0.50667369 0.23757556 1.3455001
-0.49492636 0.23938115 1.3470001
-0.48507798 0.23587854 1.3466154
-0.47472304 0.23543951 1.3435624
-0.46498021 0.2356008 1.344
-0.45503312 0.23443812 1.3438182
-0.44470188 0.23524137 1.3424168
-0.43445411 0.23428471 1.3419999
-0.42483887 0.23338023 1.342
-0.41486973 0.2318465 1.342
-0.4064343 0.23133525 1.342
-0.37320381 0.23133525 1.342
-0.36553526 0.23133525 1.342
-0.76073432 0.24759145 1.3470001
-0.75303721 0.24759145 1.3470001
-0.74340272 0.24562278 1.3451819
-0.73494792 0.24561931 1.3432499
-0.72616166 0.24567614 1.3435626
-0.71611434 0.24552287 1.3427143
-0.70550865 0.24411623 1.342
-0.69493532 0.24388383 1.342
-0.68462986 0.24474746 1.3426666
-0.67481714 0.24441619 1.3436667
-0.66492367 0.24499837 1.3448572
-0.65477204 0.24441725 1.3436667
-0.64458603 0.24241208 1.342
-0.63327962 0.24461722 1.3424168
-0.62560213 0.24467672 1.3438182
-0.61680788 0.24474458 1.3429091
-0.60666925 0.24241208 1.342
-0.59285814 0.24264905 1.3445001
-0.58554822 0.24455181 1.3430001
-0.57693219 0.24258249 1.342
-0.56747431 0.24156001 1.342
-0.5534153 0.24156001 1.342
-0.54191244 0.24156001 1.342
-0.53424382 0.24156001 1.342
-0.5238964 0.24378498 1.3430001
-0.51470721 0.24338587 1.342
-0.50601 0.24213605 1.3428334
-0.49578366 0.24341415 1.3428334
-0.48622397 0.24265552 1.342
-0.46906099 0.24156001 1.342
-0.76073432 0.25015715 1.3470001
-0.75398588 0.25246364 1.3445001
-0.74710178 0.25201693 1.34325
0.43844002 0.17977335 1.358
0.44490668 0.17977335 1.358
0.45525336 0.17977335 1.358
0.4720667 0.17977335 1.358
0.6065734 0.17977335 1.3580002
0.61648893 0.17891113 1.3579999
0.62511116 0.17891113 1.3579999
0.67641336 0.17977335 1.3580002
0.68626463 0.17818215 1.3557501
0.69503742 0.17822133 1.358
0.70228004 0.17977335 1.358
0.71457678 0.17961448 1.3567998
0.72038674 0.17718668 1.358
-0.032333337 0.18753335 1.358
0.073720008 0.18753335 1.358
0.13062668 0.18753335 1.358
0.14549841 0.18811558 1.3560001
0.15485716 0.18840669 1.355
0.16518097 0.18840669 1.3550001
0.17494415 0.1886978 1.3540001
0.1815543 0.18928002 1.3520001
0.21738923 0.18811555 1.3559999
0.22385018 0.18811558 1.3560001
0.23595126 0.18788269 1.3568001
0.24519049 0.18840669 1.355
0.25487921 0.18853144 1.3545716
0.30781335 0.18753335 1.358
0.31557333 0.18753335 1.358
0.3362667 0.18753335 1.358
0.34429735 0.18763183 1.3550001
0.35487813 0.18840669 1.355
0.36520192 0.18840669 1.3550001
0.3711867 0.18753335 1.358
0.38929337 0.18753335 1.358
0.39704219 0.18721835 1.3557501
0.40677175 0.18667431 1.3571428
0.41530392 0.18655048 1.3552306
0.42494324 0.18662199 1.3543078
0.43513417 0.18572327 1.3548232
0.44528624 0.18357368 1.3530911
0.45555967 0.18412954 1.3520001
0.46593431 0.18607442 1.3541428
0.47546038 0.18617652 1.3559999
0.48460755 0.18683065 1.3545002
0.49442008 0.1867678 1.354182
0.50366569 0.18745863 1.3533335
0.51505965 0.18828192 1.3554287
0.5260309 0.18762289 1.3552728
0.53586894 0.1872279 1.3558182
0.54549354 0.18746306 1.3558183
0.55488676 0.18601817 1.3556924
0.56321591 0.18716128 1.3553333
0.57554036 0.18811558 1.3560001
0.58587444 0.18763182 1.355
0.59489781 0.18525843 1.3540001
0.60520095 0.18448612 1.3532857
0.61567658 0.18492284 1.3524286
0.62561375 0.18547471 1.3524286
0.63581651 0.18629751 1.3541819
0.64469039 0.1867741 1.3544
0.65421587 0.18590318 1.3540001
0.66453212 0.1843981 1.3540001
0.67439675 0.18350042 1.3525456
0.68372571 0.18219811 1.3520001
0.69531435 0.18284193 1.3520001
0.70639527 0.18304333 1.3535001
0.71499646 0.18339375 1.3520001
-0.2150324 0.19958097 1.3520001
-0.20601906 0.19958097 1.3520001
-0.1945985 0.19924077 1.3532002
-0.18541716 0.19958097 1.3520001
-0.17640382 0.19958097 1.3520001
-0.16470286 0.19924077 1.3532002
-0.1545143 0.19958097 1.3520001
-0.14226668 0.19788001 1.358
-0.13364445 0.19701779 1.3579999
-0.12397716 0.19629526 1.3560001
-0.11511073 0.19571835 1.3542501
-0.10622223 0.19567113 1.3546667
-0.095603816 0.19765857 1.3565
-0.085579254 0.1964981 1.3573998
-0.075517826 0.19664654 1.3571428
-0.064142227 0.198447 1.3559999
-0.052961368 0.19615212 1.3562858
-0.044253334 0.19356658 1.3558182
-0.035711117 0.19232446 1.3553333
-0.02616589 0.19255066 1.3552728
-0.01497524 0.19442859 1.3556
-0.0051619047 0.19356859 1.355
0.0051619052 0.19550431 1.3550001
0.015486668 0.19485812 1.355
0.02581762 0.19493 1.3555001
0.035083987 0.1930189 1.3552728
0.044221669 0.19302976 1.3557501
0.054487921 0.19383122 1.3547692
0.064789303 0.1943609 1.3543077
0.074431166 0.19289185 1.3541428
0.084618673 0.19270858 1.3544
0.096206158 0.19330153 1.3552308
0.10535984 0.19231844 1.3536364
0.11551176 0.19280699 1.3526667
0.12434592 0.19219124 1.3544
0.13447966 0.19192657 1.3541819
0.14382401 0.19253829 1.3532002
0.15365589 0.19271366 1.3520001
0.16520818 0.19172737 1.3537143
0.17543197 0.19232804 1.3533335
0.18598352 0.19328286 1.353
0.19495782 0.19416192 1.3543077
0.20532368 0.19414049 1.3545002
0.21412079 0.19219238 1.3544
0.22476193 0.19253829 1.3532001
0.23396145 0.19270904 1.3535
0.24550605 0.19271366 1.3520001
0.25494859 0.19314286 1.3520001
0.26520306 0.19322363 1.3544
0.27541715 0.19383124 1.3547692
0.28540596 0.19385298 1.3551998
0.29447386 0.19283897 1.3547692
0.30432767 0.19213523 1.3540001
0.3149052 0.1925099 1.3538462
0.32484007 0.19335286 1.3535
0.3345463 0.19332287 1.3532857
0.34409487 0.1915082 1.3532002
0.35538289 0.19185525 1.3520001
0.36697143 0.19249906 1.3520001
0.37600973 0.19280341 1.3546667
0.38483411 0.19200397 1.3547274
0.393906 0.19260406 1.3527502
0.40444902 0.19231844 1.3536364
0.41281071 0.19288535 1.3520001
0.42620194 0.19185525 1.3520001
0.46666998 0.19295892 1.3520001
0.47513148 0.19185525 1.3520001
0.50732195 0.19185525 1.3520001
0.51499844 0.19199526 1.3530002
0.52277339 0.19185525 1.3520001
0.53822482 0.19185525 1.3520001
0.54695201 0.19385821 1.3520001
0.5546419 0.19410858 1.3520001
0.56397718 0.19314286 1.3520001
0.57391316 0.19192658 1.3541819
0.58457911 0.19185525 1.3520001
-0.3711867 0.20822668 1.358
-0.32592002 0.20822668 1.358
-0.31328908 0.20864049 1.3564999
-0.30391875 0.20877843 1.3559999
-0.29487091 0.20741257 1.3544
-0.28491703 0.20695867 1.3545713
-0.27509159 0.20508875 1.3544002
-0.26546058 0.20457293 1.3544
-0.25534773 0.20488904 1.3556924
-0.24509653 0.20348229 1.3540001
-0.23469335 0.20245142 1.3540001
-0.22491686 0.20169145 1.3546668
-0.21632001 0.2021562 1.3520001
-0.2021562 0.2021562 1.3520001
-0.19700573 0.2021562 1.3520001
-0.18464458 0.2031863 1.3520001
-0.17449562 0.2018183 1.3532002
-0.1686781 0.2021562 1.3520001
-0.40352002 0.21857335 1.358
-0.39435574 0.21671528 1.3565
-0.38473105 0.21560156 1.3556001
-0.37515524 0.21545018 1.3559999
-0.36559069 0.21692479 1.3573998
-0.35470483 0.2169573 1.3571428
-0.34405771 0.21469593 1.3558182
-0.33537298 0.21334592 1.3544
-0.32520002 0.21163523 1.355
-0.31533092 0.21175268 1.3545715
-0.30541748 0.21206635 1.355
-0.29744002 0.21245715 1.3520001
-0.64278668 0.22892003 1.3580002
-0.63502669 0.22892003 1.3580002
-0.62985337 0.22892001 1.358
-0.57165337 0.22892001 1.358
-0.56303114 0.2280578 1.3579999
-0.55613339 0.22892001 1.358
-0.54708004 0.22892003 1.3580002
-0.52121335 0.22892001 1.358
-0.51604003 0.22892003 1.3580002
-0.49103558 0.22805779 1.3580002
-0.48310155 0.2263532 1.3537143
-0.47545758 0.22547126 1.3544
-0.46642596 0.22650477 1.3544
-0.45649147 0.2269543 1.3540001
-0.44616002 0.22597715 1.3520001
-0.42392004 0.22583048 1.355
-0.4152267 0.22437525 1.3540001
-0.40577278 0.221367 1.3540001
-0.3970159 0.22104128 1.3520001
-0.37540162 0.22120412 1.3530002
-0.36608955 0.22171476 1.3535001
-0.35624132 0.22104131 1.3520001
-0.34894478 0.22018287 1.3520001
-0.75272 0.23668002 1.358
-0.74488866 0.23556425 1.3558571
-0.73552358 0.23718452 1.3545715
-0.72379386 0.23782717 1.3535001
-0.71531451 0.23563834 1.35575
-0.70529449 0.23497389 1.3545716
-0.69607878 0.23546797 1.3559999
-0.68539113 0.23456477 1.357
-0.67498422 0.23546733 1.3559999
-0.66411865 0.23695812 1.3569089
-0.6542964 0.23430239 1.3554999
-0.6461848 0.23274858 1.3532002
-0.63608384 0.23134224 1.3520001
-0.62543839 0.23236911 1.3546667
-0.61613357 0.23399533 1.3547273
-0.60537976 0.23621273 1.3553333
-0.59462029 0.23536073 1.3561537
-0.58501446 0.23449081 1.3553334
-0.57411331 0.2342034 1.3553333
-0.5644955 0.23239376 1.3545715
-0.55488956 0.23212993 1.3556
-0.54629064 0.23305631 1.3553334
-0.53598565 0.23437589 1.3546668
-0.52550405 0.23346934 1.3544
-0.51477772 0.23187974 1.3537143
-0.50459975 0.23423484 1.3545713
-0.49520752 0.23417319 1.3535
-0.48414478 0.23048383 1.3520001
-0.47255623 0.23048383 1.3520001
-0.46740577 0.23048383 1.3520001
-0.45324194 0.23177144 1.3520001
-0.76331532 0.24421765 1.355
-0.75611055 0.24492122 1.3541819
-0.74681914 0.24078478 1.3520001
-0.67084956 0.24078478 1.3520001
-0.6669867 0.24078478 1.3520001
-0.59616768 0.24078478 1.3520001
-0.035177145 0.17849144 1.368
-0.0091200005 0.17849144 1.368
0.0013028572 0.17849144 1.368
0.079474293 0.17849144 1.368
0.11725715 0.17849144 1.368
0.12464001 0.17849143 1.368
0.14565943 0.17797031 1.368
0.15504001 0.17849143 1.368
0.16025144 0.17849144 1.368
0.17718858 0.17849144 1.368
0.18457144 0.17849143 1.368
0.19152001 0.17849144 1.368
0.21757716 0.17849144 1.368
0.22539429 0.17849143 1.368
0.23060574 0.17849144 1.368
0.24102859 0.17849144 1.368
0.2527543 0.17849144 1.368
0.27620572 0.17849144 1.368
0.28358859 0.17849143 1.368
0.29184002 0.17849144 1.368
0.30617145 0.17849143 1.368
0.31529146 0.17849144 1.368
0.33613718 0.17849144 1.368
0.34482288 0.17762287 1.368
0.35437715 0.17849144 1.368
0.36566862 0.17762287 1.368
0.37466452 0.17737472 1.368
0.38608003 0.17849143 1.368
0.39685032 0.17797032 1.368
0.40466744 0.17744915 1.368
0.41430861 0.17849144 1.368
0.42473143 0.17849144 1.368
0.43515432 0.17718859 1.368
0.44476292 0.17686239 1.3655
0.4551667 0.17686239 1.3655
0.46492386 0.17751381 1.3655
0.47358829 0.17694393 1.366125
0.48447677 0.17737471 1.368
0.49508578 0.17849144 1.368
0.50290287 0.17849144 1.368
0.51723433 0.17849144 1.368
0.52505141 0.17718859 1.368
0.53504002 0.17762287 1.368
0.54433376 0.17797031 1.368
0.55505997 0.17711589 1.3663334
0.56509638 0.17707986 1.3671666
0.5756768 0.17737472 1.368
0.58498287 0.17718858 1.368
0.59447992 0.17743276 1.367375
0.60552001 0.17740542 1.3663334
0.61512291 0.17653787 1.3655001
0.62646085 0.1757621 1.363
0.63632417 0.17697273 1.3663334
0.64491433 0.17849143 1.368
0.65403432 0.17762287 1.368
0.66415423 0.17710704 1.367375
0.67526937 0.17641844 1.3666364
0.68533343 0.17545192 1.3663334
0.69667584 0.174863 1.3658571
0.7043345 0.17666706 1.3659999
0.71381497 0.17711589 1.3663335
0.72307378 0.17458394 1.3665714
-0.21497144 0.1889143 1.368
-0.17154287 0.18804573 1.368
-0.16471837 0.18779755 1.368
-0.15504001 0.1889143 1.368
-0.14461716 0.1889143 1.368
-0.13549715 0.1889143 1.368
-0.12420573 0.18804573 1.368
-0.11465144 0.1889143 1.368
-0.10367022 0.18705308 1.368
-0.095521621 0.18636295 1.3665
-0.086077146 0.18648271 1.3675455
-0.075565726 0.18761145 1.368
-0.065142862 0.18761143 1.368
-0.054696791 0.18752512 1.367375
-0.043522343 0.18539007 1.3656923
-0.035354719 0.18433914 1.3657273
-0.026009526 0.18466288 1.3655001
-0.015605715 0.18466288 1.3655001
-0.0051998221 0.18462092 1.3651875
0.0044287625 0.186432 1.367
0.015983984 0.18648268 1.3675455
0.02604802 0.18625104 1.3675833
0.035134289 0.18607843 1.3663334
0.044243176 0.18607843 1.3663334
0.055019796 0.18531819 1.3662145
0.065067559 0.18479057 1.3664376
0.075505272 0.18438071 1.3653334
0.085839182 0.1851282 1.3670001
0.095488764 0.18629295 1.3659999
0.10444362 0.18582149 1.3661819
0.11480025 0.18508218 1.3666668
0.12493055 0.18479057 1.3664376
0.13559169 0.18451627 1.3663334
0.14565335 0.18336399 1.3655
0.15527591 0.1836239 1.3655
0.16462821 0.1840408 1.3660769
0.17435777 0.1840103 1.3647859
0.18454175 0.18453699 1.3645626
0.19480227 0.18531819 1.3662142
0.20601042 0.18517426 1.3673333
0.21508633 0.18481292 1.3657273
0.22488444 0.18328674 1.364923
0.23486602 0.18310371 1.3655
0.24456535 0.1834199 1.3659166
0.25466529 0.18369211 1.3661819
0.26546147 0.18607922 1.3663334
0.27530071 0.18548454 1.3667501
0.28458759 0.18479973 1.3659413
0.29441455 0.18469378 1.3664616
0.30446824 0.18476187 1.3662144
0.31490734 0.18347585 1.3663334
0.32546476 0.18498991 1.3656924
0.33467957 0.18428601 1.364923
0.34450442 0.18264458 1.364
0.35524449 0.18325205 1.3646666
0.36575261 0.18330802 1.3650833
0.37562132 0.18401383 1.3655
0.38511601 0.18474799 1.3661252
0.39496654 0.18363453 1.3645384
0.40572694 0.18274298 1.363
0.41452512 0.18130064 1.363
0.42544135 0.18164246 1.3637143
0.43486193 0.18043526 1.363
0.46666527 0.18108431 1.363
0.47640097 0.18108431 1.363
0.48530221 0.1815479 1.363
0.49609366 0.18220246 1.3651428
0.50555837 0.18238881 1.3655
0.5153029 0.18347585 1.3663334
0.52442366 0.18291663 1.3639091
0.53530341 0.18189883 1.3642499
0.54545063 0.18181609 1.363625
0.55462402 0.18184365 1.3638333
0.56622964 0.18246512 1.3636249
0.57571727 0.18395706 1.3650833
0.58448309 0.18386708 1.3657273
0.59404206 0.18165703 1.364875
0.60231626 0.18043526 1.363
0.6381442 0.18152128 1.3646666
0.6450339 0.18206429 1.3655
0.65431416 0.18180975 1.3646666
0.66462481 0.18043526 1.363
0.67241335 0.18043526 1.363
0.70746195 0.18043526 1.363
0.71005815 0.18043526 1.363
-0.32310861 0.19933715 1.368
-0.31529143 0.19933715 1.368
-0.30400002 0.19846857 1.368
-0.29433855 0.19717973 1.3675001
-0.28413433 0.19753592 1.3658571
-0.27553946 0.19852458 1.3659999
-0.26557481 0.19690208 1.3675455
-0.25515804 0.19690208 1.3675455
-0.24463873 0.1964886 1.3663334
-0.23444496 0.19583796 1.3663334
-0.22447787 0.19587456 1.3650833
-0.21520743 0.19533655 1.3647858
-0.20561603 0.19520149 1.3664374
-0.19559929 0.19539517 1.3656923
-0.18466763 0.19506669 1.3655
-0.17422482 0.19502233 1.3651875
-0.16462541 0.19429858 1.3646666
-0.15562515 0.19511391 1.3640002
-0.14590994 0.19435798 1.3644286
-0.13571925 0.19317695 1.365
-0.12515356 0.19270636 1.3641111
-0.11524064 0.19191873 1.3646666
-0.10514572 0.19211811 1.363
-0.095539816 0.19289696 1.363
